# .PCD v0.7 - Point Cloud Data file format
VERSION 0.7
FIELDS x y z intensity
SIZE 4 4 4 4
TYPE F F F F
COUNT 1 1 1 1
WIDTH 1244
HEIGHT 1
VIEWPOINT 0 0 0 1 0 0 0
POINTS 1244
DATA ascii
-0.77302217 2.5707371 0.86627036 13.333333
4.3412609 2.5103004 0.86969382 13.117647
5.5714927 2.4223216 0.82534122 4
5.6268077 2.4760971 0.95615619 2.125
6.3598242 2.429513 0.87732786 1
6.5090232 2.4241078 0.93611568 19.625
6.9195704 2.4315486 0.95749503 7.2777777
7.0916662 2.4689853 0.96455503 4.6666665
7.3143363 2.4533262 0.95935619 24.90625
7.4186878 2.4310815 0.95176613 126.53846
8.8259792 2.49983 0.92069745 57.272728
10.331959 2.4805591 0.89728391 74.46154
11.336952 2.5563881 0.91067791 104.16666
11.49764 2.575686 0.8827908 100.33334
11.692968 2.5826182 0.93479741 103.25
11.857975 2.5918856 0.93760872 106.5
12.832917 2.4803972 0.84489954 35.5
13.377607 2.4848571 0.83547658 6.1999998
13.410604 2.4192047 0.83460438 6
16.770185 2.5078163 0.92168844 53.746666
16.805227 2.4491501 0.88337708 61.599998
-2.0151713 2.6943333 0.88459557 20.666666
-1.9805766 2.6983867 0.91051638 18.294117
-0.81352806 2.6765478 0.87734312 9.8571424
-0.76976651 2.6575089 0.91629583 11.2
1.1807566 2.7934988 0.8120575 15
4.323246 2.7073991 0.89111501 13
7.3881702 2.6677999 0.94501007 2.75
9.96241 2.7119489 0.86811328 1
10.394077 2.6059363 0.84396696 149
10.583259 2.7035618 0.86987066 120.41666
10.618738 2.7264466 0.89581519 130.26315
11.525615 2.6060436 0.82413048 100
11.708709 2.6196878 0.82535738 87.400002
11.899038 2.6401854 0.83796388 71.599998
12.01647 2.6659927 0.84839261 19.5
12.847672 2.658021 0.83420002 28
13.794519 2.7985711 0.93966019 28
13.843307 2.7975852 0.95814466 78.333336
14.007363 2.7952242 0.85763276 56
16.755945 2.7029636 0.91766149 56.842857
-2.0320747 2.9141665 0.8571108 16.619047
-1.9948847 2.8480668 0.88215554 15.4
-1.1426611 2.9946604 0.86682606 5
-0.86925399 2.919184 0.92380965 5.375
2.3581843 2.8802073 0.84391695 24
2.4050875 2.8912411 0.83938473 39
4.1903214 2.9931688 0.95333493 16
4.2838855 2.9359374 0.9162156 16.02
4.4153757 2.9744649 0.84210491 11.5
10.344677 2.8805122 0.99905002 49
10.695683 2.9048574 0.88630581 27.046511
12.87549 2.9186471 0.89163285 25.32258
13.78787 2.9123693 0.89107138 91.07692
13.872317 2.8634861 0.92623889 81.80645
14.103072 2.8427629 0.90230054 85.314812
14.300683 2.8598464 0.91237658 85.540985
14.499138 2.8807769 0.93097895 81.419998
14.698807 2.8967218 0.94734269 82.0625
14.902751 2.9154108 0.92471224 82.509804
15.106058 2.9318407 0.91277307 77.781815
15.209969 2.9128344 0.91286629 58
15.994463 2.9947999 0.8110643 1
16.740639 2.9022026 0.90995866 56.18182
-2.0479341 3.053865 0.87465465 15.214286
-1.9180957 3.0935352 0.94311732 6.125
-1.6772525 3.0952761 0.96240979 4.5454545
-1.5138028 3.1208863 0.98543328 8.5
-1.3389467 3.1430223 0.996696 5
-1.1034172 3.1480429 0.87669581 16.666666
-0.8877902 3.130872 0.89040929 16.5
1.1346874 3.1509466 0.93235242 13
4.189774 3.1204982 0.90641594 13.3125
4.3300791 3.1049881 0.89385593 15.214286
5.5643396 3.1538494 0.90129912 15.538462
5.6084991 3.1859417 0.90370613 13.666667
10.721317 3.1005301 0.88301158 15.020409
12.852368 3.0334823 0.89652085 6.5
13.745584 3.0613797 0.92290992 27.821428
13.810697 3.029727 0.96254945 94
15.960569 3.0166316 0.81075293 1
16.724916 3.0766325 0.9140057 54.425926
0.94568181 3.3123932 0.82834321 4.3333335
1.136176 3.3210547 0.94118816 18.571428
1.3063717 3.3345468 0.97765189 2.5
1.5045791 3.3590434 0.98667169 2.6666667
1.7393446 3.3614035 0.99409688 3
2.2978261 3.3174372 0.82290661 10
4.1763806 3.3071926 0.90127265 13.65
4.3660569 3.2952149 0.86419785 15.217391
5.5728512 3.3079512 0.89689535 7.818182
5.6325493 3.2693515 0.85499686 13
5.8394341 3.2812653 0.80918413 1
7.3852057 3.3284864 0.91087478 26.166666
7.5086427 3.285126 0.91604966 33.117645
10.704092 3.3020942 0.8778339 14.886364
16.97123 3.308701 0.91005361 111.30769
17.029015 3.2924943 0.89199919 86
0.92763346 3.4261329 0.9293586 2
1.468895 3.4198606 0.97897458 3
1.6730198 3.4216645 0.99525911 7.4000001
1.9404863 3.4275951 0.80418462 13
2.1047626 3.4470615 0.80352724 11
2.3279712 3.4360218 0.81053686 11
4.1561055 3.488034 0.914123 14.291667
4.3416443 3.4825187 0.86280894 14.375
5.5280356 3.4873104 0.87065077 3.3333333
7.3661747 3.5012388 0.89278215 26.333334
8.7548656 3.5003083 0.94433564 16.066668
10.58308 3.5892332 0.89708281 15.166667
10.676065 3.5055041 0.89112908 14.903846
17.084476 3.5062931 0.88743192 21.299999
4.136519 3.6992896 0.89327604 11.666667
4.3245769 3.6826153 0.89202601 12.647058
4.5088758 3.673156 0.87105322 2.7142856
4.6622205 3.6733904 0.86721784 4.6666665
4.9298792 3.7161822 0.8750428 11.222222
5.0857153 3.7273948 0.88357317 5
5.3383331 3.7158403 0.8431564 12.833333
5.5021935 3.6925514 0.83309603 9
7.3393774 3.7044678 0.89364159 19.153847
8.7513189 3.7242835 0.86441725 7.7272725
10.573227 3.7039053 0.89870811 16.125
17.094162 3.6974542 0.8968755 12.914893
5.4780407 3.803638 0.8442145 1
7.3196578 3.9075928 0.88256299 19.285715
7.7228799 3.9864798 0.87513924 1
7.8873148 3.9834616 0.88963479 2.5
8.1415215 3.9868746 0.91082144 2
8.7130194 3.9158289 0.87199509 3.3076923
10.547109 3.8981686 0.89796448 16.947369
13.772469 3.9199281 0.91434199 17.17647
13.890655 3.885648 0.92142612 18.689655
17.083841 3.888643 0.87284094 12.1875
7.2983117 4.039237 0.87569362 14.833333
7.7507811 4.0184164 0.87549716 1
7.9576616 4.0284858 0.89259166 2.5999999
8.1073484 4.0537834 0.89403379 6.3846154
8.3007288 4.0941558 0.87921029 3.9166667
8.485424 4.0640526 0.85311908 3.2222223
8.6856518 4.0695724 0.85395724 7.4375
10.527578 4.0938687 0.89956844 14.222222
13.745982 4.0927491 0.90190482 13.833333
15.117783 4.156261 0.83885759 4.3333335
16.978699 4.1842432 0.87927818 13
17.062651 4.1020932 0.87091619 11.96
10.508727 4.2904172 0.90650314 13.5
13.737841 4.2950907 0.8865881 12.4375
15.123682 4.3017106 0.84040987 5.1176472
16.948254 4.3039794 0.88842964 15.157895
17.058971 4.2369785 0.99975181 9
13.711322 4.5015888 0.905904 15.866667
14.276947 4.592464 0.87750041 10
15.12265 4.5051703 0.84046811 2
16.92907 4.4987369 0.89275688 16.277779
13.692714 4.649333 0.93165547 8
14.393639 4.6424813 0.96481216 5
14.487588 4.6442409 0.95239949 7.8888888
14.685309 4.6983047 0.91677511 5.625
14.910524 4.6814141 0.88680303 3.5714285
15.074127 4.6588793 0.85346538 5.3333335
16.890512 4.6917572 0.95307851 15.666667
16.882608 4.8874664 0.96123707 15.4
16.833019 5.5650301 0.9571799 2
1.9625857 11.560684 0.98317099 7
31.756065 14.374558 0.94972289 5
31.686718 14.432577 0.95005095 10
31.987785 29.505802 0.88828659 7
32.172359 29.550838 0.886168 7
32.312622 29.523983 0.88540077 7
32.504498 29.577503 0.8830539 7
32.833076 29.842144 0.87658954 7
34.301571 34.368477 0.80044079 10
-30.004486 41.360386 0.950302 31
-28.814598 41.308403 0.98709005 30
-28.660702 41.450275 0.9944154 30
-27.021069 41.574715 0.93433648 30
-25.280766 41.757751 0.99016988 28
-25.096428 41.856735 0.99712163 28
2.0971289 44.342331 0.80959862 18
1.823451 44.423134 0.80149353 18
2.4541163 -7.8004532 1.0852544 13
2.1848793 -7.6454906 1.1302891 63.666668
2.2662632 -7.7039547 1.120997 44.675674
2.5115108 -7.7480946 1.0678837 7.5599999
2.6972477 -7.7295971 1.0670235 6.181818
2.8968053 -7.7117848 1.0640916 5.121212
3.083612 -7.673758 1.0629035 6.318182
3.2742951 -7.6509032 1.0361384 6.75
2.1875536 -7.4827189 1.1010122 67.333336
2.2250051 -7.5036044 1.0876803 77.138885
3.3421021 -7.5881648 1.0456011 11.5
3.4752948 -7.569746 1.0567327 11.25
3.7124138 -7.5520868 1.1345087 23
3.913276 -7.5619264 1.1374792 18.545454
4.0967388 -7.5478821 1.1024768 18.3125
4.2956948 -7.5243793 1.1056265 19
4.5001297 -7.5096464 1.0968969 15.909091
4.7031374 -7.4815717 1.0926042 22.576923
4.8347473 -7.4647608 1.0627829 55
-1.0828294 -7.2287745 1.1275972 81.5
-0.91932261 -7.223815 1.0421647 61.099998
-0.71227175 -7.2120242 1.0119131 90.5625
-0.51960242 -7.2011838 1.0058231 113
2.1795039 -7.2872367 1.1000916 75.384613
2.2163343 -7.318717 1.0695282 94.705879
4.7654314 -7.282186 1.0766743 60.76923
4.8135934 -7.3665366 1.0803567 48
-1.1299473 -7.0949316 1.1305451 100.39344
-0.89664352 -7.1354046 1.1087108 63.176472
-0.68835187 -7.1092758 1.0548148 90.111115
-0.4986721 -7.1317959 1.0334383 108.9375
-0.30093479 -7.131803 1.0261283 114.91428
-0.10066812 -7.132606 1.0237569 104.72727
0.094702184 -7.1284604 1.0252912 109.02778
0.28671348 -7.1026697 1.0787351 97.777779
0.50058377 -7.0964899 1.0479747 97.622223
0.70251817 -7.0756378 1.0598291 92.833336
0.89730316 -7.0602126 1.058082 83.829269
1.0968925 -7.0418191 1.0720675 74.641029
1.3021094 -7.0242109 1.0649644 81.057144
1.4822618 -7.0157194 1.0499847 103.2963
1.6636647 -7.0063415 1.0403196 114.42857
1.9067135 -7.0114412 1.0078702 37
2.1630864 -7.0924921 1.1019325 75.653847
2.2052057 -7.1326256 1.0376431 102
4.7762375 -7.0949111 1.0683526 75.533333
8.5858765 -7.0578523 1.1077801 49.583332
8.6985664 -7.1377583 1.0807918 25
8.9050999 -7.1514192 1.0854234 9.2790699
9.1049881 -7.132678 1.0935142 9.456522
9.3031635 -7.1100354 1.1095821 9.8148146
9.4982262 -7.088841 1.1004289 15.416667
9.6784153 -7.0313501 1.0917196 28.571428
9.8550491 -7.0012064 1.027859 58.5
-1.1592715 -6.9023385 1.1125501 101.54285
-0.66702223 -6.9837532 1.1441122 51.42857
-0.50144017 -6.976244 1.16583 50.333332
-0.31113598 -6.9568558 1.1687565 63
-0.10392342 -6.9411583 1.1756927 54.400002
0.11214501 -6.9189506 1.1724707 53.857143
0.22512211 -6.9552689 1.1766002 101.85714
1.1325237 -6.9790053 1.0744419 28
1.291973 -6.9666977 1.0758357 41.714287
1.512218 -6.9853225 1.064985 88.14286
1.7074685 -6.9669518 1.0581363 88.736839
1.9043927 -6.9573727 1.0623893 75.666664
2.1163874 -6.9517512 1.072475 66.044441
4.7631197 -6.8914404 1.022198 115.07143
8.5728188 -6.8998461 1.0988572 40.32
8.608345 -6.9928055 1.0230532 18
9.7439909 -6.9849772 1.0733556 23.782608
9.9026003 -6.9753699 1.0754366 29.925926
10.098087 -6.9536724 1.0788165 35.459999
10.302857 -6.9334841 1.0875599 30.68
10.500438 -6.9118829 1.0792238 32.283333
10.700762 -6.8920021 1.07811 31.360655
10.892707 -6.8654861 1.0903232 38.820515
11.099034 -6.8552041 1.0825409 49.419353
11.223041 -6.8256431 1.1598916 53.833332
-1.2049072 -6.6521769 1.1176294 129
-1.1676748 -6.7091188 1.1214982 106.16666
1.1285356 -6.6693234 1.049839 26.875
1.4750202 -6.7400823 1.0034469 24
1.7289375 -6.6126633 1.002507 43.400002
1.8213472 -6.7324677 1.0051161 2.25
4.7633853 -6.7014713 1.0284402 90.190475
4.8960147 -6.6625991 1.0582086 70.976746
5.1081343 -6.6490293 1.0539386 71.603775
5.2971978 -6.6330009 1.0639654 73.259262
5.491272 -6.620852 1.0675287 73.351349
5.6909304 -6.6197228 1.0419074 72.0625
5.8761773 -6.6248026 1.0796822 83.25
6.1038461 -6.6118979 1.0743895 51.333332
6.2189808 -6.607398 1.071631 51
8.5547304 -6.7128177 1.0827762 46.041668
10.920083 -6.7634873 1.0843037 54.809525
11.151552 -6.6948557 1.0760672 56.666668
11.231196 -6.6982317 1.1420314 63.075001
-1.2105898 -6.4942465 1.1065973 112.2963
-1.1727134 -6.5136442 1.1080352 89.5625
1.1070981 -6.577858 1.0532044 12
1.9077522 -6.5445447 1.0862697 24.428572
5.3205028 -6.5943909 1.128728 53.857143
5.5213494 -6.5894527 1.0733044 80.333336
5.7047219 -6.5752754 1.0936021 97.236839
5.9134483 -6.5614748 1.0707467 111.95918
6.0903249 -6.5370502 1.0638484 118.9315
6.2987127 -6.5347939 1.0553757 114.73529
6.5065112 -6.511344 1.0621698 111.87357
6.6999955 -6.4974451 1.0633839 109.38383
6.8988285 -6.4778719 1.0640913 114.0099
7.1027083 -6.4604154 1.0667051 114.33009
7.2958317 -6.4418259 1.0670916 116
7.4980664 -6.425107 1.0715832 105.81609
7.6806321 -6.414165 1.0609119 111
7.8446469 -6.4278455 1.0318023 117.27273
8.0700388 -6.4771132 1.0255729 53
8.2083054 -6.4647751 1.0220062 51
8.5331211 -6.4938488 1.0436943 38.636364
11.16189 -6.4877152 1.096043 54.761906
11.216402 -6.5129881 1.1271322 64.675003
15.505456 -6.52707 1.0705075 10.375
15.716825 -6.510046 1.0790529 8.3888893
15.898303 -6.4816475 1.0727084 14.352942
16.039534 -6.4315329 1.0724447 21.285715
-1.2216589 -6.2931376 1.0948663 93.688889
-1.1812457 -6.3193288 1.1225426 93.391304
5.6480908 -6.3869967 1.1964297 60
6.3945727 -6.3970308 1.1719729 96
6.569571 -6.3354073 1.1804324 75.666664
7.5626016 -6.3965135 1.1914585 97.75
7.7331581 -6.390914 1.0952082 93.785713
7.906889 -6.3813705 1.0807327 108.05264
8.1050806 -6.3652983 1.0773925 111.9
8.3010683 -6.345674 1.0777464 95.261902
8.4658194 -6.3300238 1.082587 68.559998
11.181002 -6.2925444 1.129287 64.08889
11.206785 -6.3651624 1.1254746 72.714287
16.121212 -6.3849621 1.0942744 16.896551
16.300085 -6.3711138 1.0933037 16.324324
16.498325 -6.3541589 1.0879866 14.547619
16.699448 -6.3323646 1.0876647 13.390244
16.903074 -6.3089972 1.0897262 12.422222
17.096943 -6.288928 1.1033809 9.5
17.296431 -6.2680511 1.0962181 9.5882349
17.497728 -6.2480388 1.0968108 15.136364
17.608393 -6.2266455 1.0730041 53.42857
-1.2349243 -6.0929389 1.090856 97.254234
-1.1909629 -6.1148911 1.1537713 62.222221
11.168736 -6.1041532 1.121008 66.894737
11.298812 -6.0453258 1.0999506 77.125
11.49852 -6.0272756 1.0916697 77.213112
11.689945 -6.0138569 1.0914931 71.571426
11.871224 -6.0073848 1.0799823 45.18182
17.585493 -6.0782475 1.0702339 46.080002
17.616373 -6.1497726 1.0811633 49.866665
-1.2489028 -5.8965588 1.0921128 90.106064
-1.1967621 -5.9711757 1.1913315 7.6666665
11.343967 -5.9936023 1.1387298 33
11.528544 -5.9885283 1.1254419 75.875
11.730478 -5.9875402 1.1079183 69.368423
11.911105 -5.9796867 1.1049547 85.118645
12.102845 -5.9691405 1.0994431 110.41428
12.306283 -5.9404302 1.0937347 121.15476
12.508318 -5.9296403 1.1046517 122.34483
12.705916 -5.9145594 1.119378 114.80328
12.90347 -5.8951888 1.1154613 110.69841
13.099719 -5.8764043 1.121021 109.93846
13.300128 -5.8581009 1.1191076 110.34849
13.499536 -5.8424001 1.1202512 111.85
13.695996 -5.8270521 1.1168873 114.1579
13.881569 -5.8154259 1.1125339 108.57895
14.059035 -5.8090749 1.1225038 110
15.069708 -5.9259973 1.1001425 6.5999999
15.24708 -5.8649602 1.0742564 22
17.566917 -5.8827505 1.0846007 60.472221
17.627396 -5.9471946 1.1078196 43.200001
-1.2724879 -5.6977959 1.0958441 100.89831
13.478624 -5.7906008 1.1069314 68
13.724621 -5.7876253 1.1030735 70.5
13.921305 -5.790442 1.1143588 110.08696
14.113425 -5.7818856 1.1120057 106.11765
14.30165 -5.7691264 1.1131688 107.47369
14.493934 -5.7495923 1.1167228 98.5
14.701015 -5.7307291 1.1090707 74.934425
14.85082 -5.7221956 1.1065692 55.925926
17.562208 -5.7030864 1.0769861 62.777779
17.604237 -5.7149563 1.1083483 45.599998
-1.2850279 -5.4999881 1.1018044 97.291664
14.296855 -5.4539156 1.1132951 101.6087
14.476362 -5.4975228 1.128968 54.400002
14.783653 -5.456295 1.1071612 75
14.827294 -5.4587474 1.1259615 80.153847
17.555002 -5.5004592 1.0738258 50.400002
17.69528 -5.4228287 1.0418717 10.333333
17.888988 -5.4182367 1.0631816 78.800003
-1.2710053 -5.3475804 1.1072552 74
-1.1686304 -5.2647519 1.0860009 56.583332
14.31839 -5.3136396 1.1071119 102.52
14.780914 -5.3250208 1.1329637 68.444443
14.81703 -5.3410749 1.1181827 45.375
17.540434 -5.3989983 1.0429859 35
17.683067 -5.3684344 1.0868009 11.666667
17.893517 -5.3088264 1.0761908 105.29729
-1.2959609 -5.1024895 1.0735477 54.426472
-1.179335 -5.1659117 1.0827613 31.736841
15.908982 -5.0716686 1.1144874 69.21154
16.087168 -5.02946 1.134946 47.422222
16.212866 -5.0046172 1.1586614 88.666664
17.874887 -5.1419773 1.0773712 63.375
-1.3456544 -4.9008031 1.0836484 91.027397
16.152037 -4.9848719 1.125247 49.142857
16.306557 -4.9676714 1.1312006 42.734695
16.490627 -4.9112768 1.1293261 50.150002
16.692719 -4.8534355 1.130255 51.729729
16.87064 -4.820837 1.1304402 59.388889
17.77692 -4.8693795 1.0672635 43.5
17.85681 -4.8690934 1.0836391 60.857143
-1.3630717 -4.704669 1.0870734 91.288139
16.608124 -4.7925382 1.0878253 1
16.948629 -4.7655554 1.138381 34.826088
17.089678 -4.7186713 1.1261985 36.177776
17.292273 -4.6661577 1.1216278 32.516129
17.494946 -4.6493983 1.1326391 34.739132
17.719036 -4.6548223 1.0876 95.949997
17.833576 -4.6819148 1.0535451 96.684212
-1.4036015 -4.4639297 1.103494 105.44444
-1.3783566 -4.5053029 1.0824658 97.549019
-1.037194 -4.4259834 1.0318348 20.5
-0.98722178 -4.4403191 1.0490361 10.666667
15.972484 -4.4114428 1.1113074 34.5
16.03849 -4.4062109 1.1439377 46.42857
17.336887 -4.5861483 1.1019648 8
17.491385 -4.5832648 1.094817 19.5
17.729336 -4.5222135 1.1167871 107.14893
17.819181 -4.4957881 1.0831636 106.86793
-1.41267 -4.2791643 1.1006968 89.454544
-1.3823348 -4.3088074 1.0684311 92.224998
-1.0486194 -4.2900739 1.0384766 26.5
-0.99217433 -4.3039031 1.054485 13.166667
15.976535 -4.3742948 1.0707549 32.5
16.119392 -4.3607135 1.0782726 43.522728
16.302095 -4.3017006 1.1005739 39.471699
17.784769 -4.2935338 1.1115383 109.19643
17.810488 -4.346024 1.0877475 98.192307
-1.4232717 -4.0925889 1.082418 97.224136
-1.3828306 -4.1105924 1.0379993 92.583336
-1.0574772 -4.0819759 1.0487745 33.5
-0.99055254 -4.1029253 1.0626841 16
15.342188 -4.0011606 1.0452533 1
15.484719 -4.0249219 1.0543286 35.222221
17.769314 -4.0977764 1.1038413 112.64
17.803354 -4.1426148 1.0958972 69.666664
-1.4367129 -3.9016917 1.078665 97.926468
-1.2958105 -3.9632714 1.0348938 42
-1.0584913 -3.9427888 1.0481821 20.666666
14.768777 -3.8231442 1.1408246 43.666668
14.878609 -3.8330214 1.0724994 47.4375
15.067458 -3.8460078 1.0547911 68
15.306533 -3.9244707 1.0589314 40
15.448232 -3.9830804 1.0262487 72
17.747923 -3.8999159 1.1177336 117.80682
-1.4530942 -3.7027743 1.0816723 99.896103
14.543678 -3.674521 1.0726849 63.896553
14.680437 -3.7375603 1.0705584 52.558823
14.829256 -3.7737134 1.0351403 60.599998
16.781481 -3.6270127 1.1205301 86.85714
16.894342 -3.6700258 1.1296273 72.23333
17.058144 -3.7152529 1.1437793 65.153847
17.729538 -3.6966403 1.1199718 114.3253
-1.4733748 -3.5005817 1.0862616 102.65823
14.489337 -3.5866468 1.1029174 48
16.758017 -3.5646312 1.12246 84.285713
16.818052 -3.5945084 1.1091541 76.666664
17.711559 -3.4953198 1.1238155 108.76
-1.4916263 -3.3047988 1.0884744 104.79546
17.688421 -3.2939298 1.1226758 112.77451
-1.5095254 -3.1030276 1.0914601 102.79775
17.668827 -3.0946968 1.11824 113.04211
-1.5299531 -2.9011266 1.0849092 102.1954
15.174131 -2.8844037 1.0367781 70.805557
15.258623 -2.9310939 1.0671356 30.25
15.43433 -2.9670434 1.0792379 18
17.651335 -2.8982916 1.1141758 112.98148
-1.5464442 -2.7039776 1.0871575 96.25
15.177371 -2.700875 1.0405618 80.3871
15.201444 -2.6599212 1.0095482 34
17.16416 -2.6312523 1.0004067 10
17.592564 -2.6728337 1.1049259 122.42857
17.636337 -2.7026889 1.1122677 111.75
-1.5639902 -2.5044725 1.0847322 97.710144
15.170782 -2.5392396 1.0421315 79.818184
15.281671 -2.4816625 1.0250764 48.153847
15.456103 -2.4658177 1.0181029 44.400002
17.584991 -2.4678004 1.0890588 113.5
17.620369 -2.5050991 1.1177125 108.05209
-1.6099348 -2.2838686 1.102818 100
-1.5799549 -2.3041039 1.0913602 102.32727
17.134514 -2.2521052 1.00179 5
17.584009 -2.2858033 1.1093562 112.24561
17.60984 -2.3221672 1.1113938 105.6
-1.6147722 -2.0842633 1.0945241 98.232559
-1.5862821 -2.1255314 1.0996726 100
17.128187 -2.1383617 1.001328 5
17.576748 -2.0971918 1.1198437 109.21154
17.606863 -2.1520178 1.1273687 110.2
-1.6308181 -1.898505 1.0980631 99.739128
-1.5879176 -1.9334882 1.1112528 101
14.95921 -1.9066862 1.0417039 87.25
15.058471 -1.8325807 1.0612072 85.466667
16.710924 -1.8270409 1.0558842 67.8125
17.559387 -1.9002024 1.120674 107.54546
-1.6463308 -1.7007824 1.100427 102.82895
15.151034 -1.7835039 1.0570531 76.625
15.262575 -1.7551534 1.0526223 62.375
15.70301 -1.7033784 1.0919511 38.53846
15.903353 -1.6602608 1.108595 45.578949
16.062757 -1.6720892 1.0723091 33.458332
16.351297 -1.7033415 1.0552511 71.5
16.497625 -1.7301469 1.0916783 59.18182
16.644377 -1.7771766 1.1091077 69.777779
16.831448 -1.7904732 1.1324768 69
17.537432 -1.6992017 1.1109473 108.89474
-1.6664875 -1.4977843 1.0997061 101.09333
17.518824 -1.5035394 1.1016343 107.73
-1.685508 -1.2971454 1.1006513 102.8169
17.49815 -1.3006045 1.1061511 110.17347
-1.7034049 -1.09838 1.1010957 101.32895
17.481224 -1.1006302 1.1083131 107.37864
-1.7210575 -0.89900601 1.1025904 100.97369
17.461048 -0.89728463 1.10684 103.98165
-1.7414746 -0.70072508 1.1000261 98.263885
16.190731 -0.67105484 1.0420704 1
16.230612 -0.61811066 1.0364715 1
17.445444 -0.70021379 1.1096686 100.68224
-1.80161 -0.41668892 1.082402 100
-1.757256 -0.50497383 1.1020136 97.861115
16.129177 -0.48918083 1.0379888 1
16.225885 -0.59875178 1.0359278 1
17.396997 -0.42892545 1.0665123 110.2
17.429007 -0.50237095 1.1181479 104.35714
-1.8092011 -0.25394747 1.0772959 101.33334
-1.7765002 -0.31017253 1.1027254 94.080643
15.990216 -0.22238787 1.0342132 1
16.041805 -0.32351467 1.0359488 1
17.38904 -0.26508448 1.1006066 111.53571
17.414883 -0.30688769 1.1231469 101.3375
-1.8110679 -0.07773979 1.0837339 98.921051
-1.7829605 -0.12869173 1.1214294 93.060608
15.904405 -0.10032419 1.0332965 1
17.382746 -0.092530034 1.1110175 107
17.406082 -0.13837107 1.1312237 98.764709
-1.8212054 0.10313784 1.0930752 98.203392
-1.7847545 0.088040389 1.1330655 88.099998
15.730786 0.13096064 1.0310087 1
15.827358 0.030217567 1.0308908 1
17.36714 0.100465 1.1078293 102.77
17.401857 0.0400635 1.1212331 70.333336
-1.8355254 0.30264598 1.0972569 93.671638
-1.7899045 0.29639217 1.1104515 79.75
-1.5289321 0.39636189 1.0060472 46
15.544552 0.32835397 1.0298859 1
15.631603 0.24434221 1.0301168 1
17.347902 0.30227831 1.1086321 100.9009
-1.8379407 0.48486143 1.0971023 86.689651
-1.6992519 0.55464268 1.0788836 66.459999
-1.5171678 0.55662423 1.0772319 62.431374
15.32888 0.52441818 1.0287901 1
15.440193 0.42408815 1.0295548 1
16.076721 0.56947953 1.0380385 1.25
17.331799 0.50039041 1.1085701 107.48245
-1.4940951 0.69572496 1.0946748 60.373333
15.264044 0.61169219 1.0260868 1
16.034353 0.61730456 1.0390139 1.6666666
17.312662 0.6983788 1.1071445 110.46722
-1.5192496 0.89846236 1.0914772 59.281689
14.936732 0.9601863 1.0158249 77.5
15.086576 0.9686119 1.0083926 70.400002
15.261955 0.99469167 1.0221895 67.333336
15.781823 0.98850489 1.0381784 77
15.909794 0.97549278 1.030026 66
17.291801 0.89819473 1.1165551 116.43925
-1.5424398 1.0964239 1.1014278 56.483334
4.1081676 1.1055194 1.0500081 57.81818
4.3060365 1.1179315 1.0584939 67.605766
4.5043731 1.1393985 1.0602371 67.368935
4.6987481 1.1638097 1.0632575 67.057144
4.8546953 1.1785867 1.0695008 62.157894
14.874315 1.0283639 1.0132051 5
15.141227 1.0923442 1.0513266 68
15.283106 1.1081774 1.0634176 65.625
15.578275 1.0887748 1.0460545 67.666664
15.675008 1.0416067 1.0423911 65.333336
15.953278 1.1334214 1.0082135 71.833336
16.077137 1.018293 1.0160044 27
17.2733 1.0964099 1.1130668 117.30909
-1.5196373 1.314438 1.0873677 79.166664
-1.3030019 1.3644283 1.0789182 92.491226
-1.0979356 1.3776325 1.0747224 92.918365
-0.91771543 1.3895761 1.0774314 84.838707
-0.77330035 1.3896154 1.0871267 106.75
4.0159969 1.2914212 1.0291644 39
4.7353649 1.2043718 1.1230321 32.666668
4.8800263 1.2969688 1.1043292 56.809525
15.897241 1.2095308 1.007876 77.75
17.252735 1.2988857 1.1140774 114.36191
-1.2211037 1.404485 1.1042387 132
-1.0955002 1.411931 1.1076866 127.2
-0.88222319 1.4123037 1.1030872 99.178574
-0.74963862 1.4848993 1.0816492 96.042252
1.1239527 1.5870653 1.1192281 94.535713
1.2605249 1.5909246 1.1109254 96.35714
1.4732239 1.5923684 1.0316887 96.800003
1.607389 1.5988803 1.0085962 100
3.9926991 1.5102437 1.0509504 44.76923
4.0072961 1.4267547 1.0288069 44
4.8592672 1.4984115 1.1075499 55.983871
17.196747 1.5645127 1.0238111 153
17.23633 1.4983391 1.1171198 114.19
-0.74827075 1.6720924 1.0725962 59
-0.24174607 1.7664952 1.1176655 1
-0.048001807 1.7884232 1.1171411 1
0.13097708 1.7151067 1.0964268 47.775509
0.24457744 1.7546279 1.0685198 71.5
0.48066422 1.7957273 1.1407995 36.5
0.89930058 1.7439623 1.0982709 1
1.1301918 1.6215245 1.1407874 98.809525
1.3110403 1.614622 1.1366413 96.561401
1.5026672 1.629693 1.1355081 96.478264
1.6985338 1.6455989 1.1358691 97.472977
1.8969946 1.6629043 1.1402621 99.346664
2.1018841 1.6843274 1.1371727 99.650002
2.3015106 1.7030394 1.1331632 99.586205
2.4361794 1.7302114 1.1153609 94.121216
3.9730308 1.6997331 1.0469646 48.375
4.7931461 1.7313154 1.0201774 54.5
4.8340206 1.6946312 1.1125766 52.142857
10.382784 1.7480116 1.1435919 73.099998
10.491142 1.7256773 1.0879534 73.444443
10.695158 1.7417424 1.0917679 72.033897
10.896836 1.7677927 1.095669 62.360001
11.091928 1.782331 1.0838333 65.414635
11.235517 1.7954222 1.0893 68
17.190742 1.7319125 1.0698247 133.54546
17.221981 1.6902463 1.121496 110.9375
-0.8220098 1.8816445 1.1614261 1
-0.76091945 1.8462145 1.030916 4.5999999
-0.57044965 1.8340676 1.1145593 1
-0.046550829 1.8374602 1.1259369 1
0.069624096 1.8065877 1.1315348 3
0.33152378 1.8052888 1.1358274 1
0.54534042 1.8232093 1.1426502 8.5
0.72366548 1.852547 1.1391888 1
0.90752453 1.8500631 1.1461855 27.6
1.0305796 1.824005 1.1549205 165
2.4397383 1.9011216 1.0956619 84.222221
2.8648345 1.9894768 1.0941024 24
3.9544823 1.882082 1.0518242 42.166668
4.7891102 1.8957046 1.077852 74.666664
4.8693032 1.9198403 1.1187346 77.580246
5.0956726 1.9689023 1.1342924 92.119049
5.2929978 1.9775879 1.1564199 82.322578
5.4812412 1.9845301 1.1633832 87.611115
5.6513047 1.9971447 1.1805632 79
10.377792 1.9156698 1.0898293 73.42424
10.413995 1.8733778 1.0373566 51.5
10.973141 1.8007078 1.1109676 81
11.096966 1.8158116 1.1193138 40.083332
11.245441 1.8121308 1.0806042 73.333336
17.185167 1.9123074 1.0974807 126.26
17.210403 1.8867519 1.1203511 104.5
2.4273453 2.0056696 1.002462 39
2.6619895 2.0484793 1.1876645 1
2.8845055 2.038708 1.1381898 11.727273
3.1748796 2.1262169 1.1667031 1
3.2708335 2.0954094 1.1701244 1.4
3.5119228 2.1366205 1.1762233 1
3.6109841 2.1183324 1.1794078 1
3.9158776 2.1186862 1.1879033 7
5.1327386 2.0052199 1.1133008 86.333336
5.3028841 2.0144925 1.1072787 98
5.5169806 2.0374849 1.1241935 100.86842
5.6347508 2.0960257 1.1346698 104.95122
7.5049424 2.1829467 1.0630922 121.3
7.6985884 2.1912045 1.0585901 141.2
7.8144531 2.1984868 1.0640199 138
10.361111 2.0979888 1.0860568 66.902435
10.415277 2.0950389 1.0478017 27.5
17.175365 2.1060236 1.1075299 113.50588
17.206055 2.0483739 1.1118443 102
-2.0326796 2.3448994 1.1099769 12.25
-1.9582227 2.3760841 1.0872893 11
4.3490353 2.3583245 1.0797297 14
5.5730677 2.3109472 1.0520957 45.42857
5.6320415 2.2701614 1.1394279 71.678574
6.3839045 2.2345939 1.0977912 1
6.5266695 2.3073747 1.1265832 46.971428
7.2970018 2.36748 1.1780186 1
7.503212 2.2387114 1.0624045 103.46875
7.7086101 2.2389965 1.0391791 113.73684
7.8998394 2.2534981 1.0303262 117.17308
8.1018553 2.2727864 1.045197 114.86275
8.2991419 2.2905405 1.0554271 112.61111
8.5028086 2.3079927 1.0592036 107.73684
8.699996 2.3231835 1.0526986 119.27869
8.8231716 2.332459 1.0527843 107.5
10.341235 2.2985821 1.0823097 66.673912
10.408602 2.2112513 1.0413322 30
16.777514 2.3470852 1.1132594 67.903847
16.899906 2.3244288 1.1102983 39.59375
17.140085 2.2897685 1.1035725 93.484535
-2.0112979 2.525219 1.1200157 18.428572
-1.976001 2.4888747 1.0954026 15.714286
-0.83816153 2.5557046 1.0711527 11
-0.78941494 2.5647931 1.0514122 15.833333
4.3416629 2.5043886 1.0660689 14.214286
5.6207438 2.470746 1.1353173 2.4444444
6.5444727 2.4151726 1.1684525 15.142858
6.8990097 2.4580197 1.063134 1.3
7.0916843 2.4843364 1.0949782 1.25
7.2771258 2.4536142 1.0333318 53.777779
8.7946348 2.4950414 1.0321677 179
8.8431187 2.4741628 1.0857449 69.199997
10.329643 2.4821472 1.0743198 64.823532
11.199955 2.5972834 1.1831334 119
11.332498 2.5580835 1.1649317 150.83333
11.499669 2.5770431 1.1390388 148.5
11.679874 2.5811076 1.1596218 149.33333
11.886577 2.5856996 1.1934479 151.85715
16.762743 2.4989088 1.1123964 72.234695
17.048712 2.4112489 1.063091 100
-2.0233293 2.675431 1.1641521 21
-1.9847342 2.6836119 1.1090344 17.384615
-0.8312788 2.7139466 1.0717962 10.857142
-0.77320576 2.6209426 1.0912404 11.8
4.3212938 2.7007196 1.0701872 13.352942
9.5528746 2.6626916 1.0199766 4
9.732338 2.6980295 1.0248305 8
9.9881887 2.7179112 1.0329218 2
10.160963 2.7495515 1.0319788 1.5714285
10.309019 2.7798743 1.0312079 1.3
10.573179 2.6991408 1.1148082 98.444443
10.61097 2.722327 1.1606356 108.42857
11.301826 2.613873 1.1852963 110.4
11.504482 2.6250362 1.1499987 125.52941
11.717212 2.6286085 1.1107411 132.2258
11.901419 2.6392009 1.0978214 129.35001
12.006271 2.6636336 1.1106874 78.666664
13.822326 2.7938704 1.0766047 48
14.049128 2.7954683 1.033494 85
16.745119 2.6984282 1.1100135 68.721649
-2.0400112 2.9128742 1.0740074 17.058823
-1.9903595 2.8140769 1.0748215 14
-1.0405722 2.9976368 1.0101191 7
-0.85763085 2.9057605 1.0447996 18.799999
1.1750784 2.9816227 1.0992203 17
2.3656361 2.8673034 1.1030412 14
2.4176457 2.9012527 1.0649793 13
4.1954117 2.9961247 1.0709038 12
4.2796583 2.9285986 1.094651 13.783784
4.4400868 2.9799657 1.0666698 8
10.19762 2.813798 1.0015657 1
10.290088 2.8268788 1.0067996 5
10.404882 2.8043618 1.0085936 2
10.690287 2.9007444 1.1472216 22.799999
12.874004 2.9189012 1.1121078 41.916668
13.784126 2.9097359 1.0812796 108.3
13.886077 2.8532929 1.1111346 99.304344
14.097159 2.8493555 1.1028115 101.90697
14.308195 2.8630509 1.1125406 100.23637
14.499865 2.8777113 1.1219516 98.599998
14.69236 2.8949161 1.1318065 97.32
14.897728 2.9096706 1.1241568 100.69048
15.099359 2.9250085 1.1140292 90.688889
15.207977 2.9309666 1.1190243 57.25
16.73045 2.8971522 1.1148745 62.951218
-2.0524797 3.0523708 1.0591226 15.5
-1.9145117 3.0466714 1.0901669 12.5
-1.6922309 3.091063 1.0419849 5
-1.4967709 3.1091321 1.0331749 13.333333
-1.2839804 3.1356812 1.047587 10.125
-1.0810671 3.1636281 1.1142774 13.875
-0.88739294 3.0995595 1.0560706 14.384615
0.96690035 3.0743227 1.0305727 4
1.1718931 3.0948517 1.0988393 19
2.365119 3.1093197 1.0846772 11.333333
2.411674 3.0449066 1.0335717 6
4.1916795 3.1187093 1.0730867 13.928572
4.3168354 3.1186378 1.0973817 16.555555
5.5531993 3.1503782 1.1395574 17
5.6196537 3.186379 1.1531777 14
10.712363 3.0833642 1.0751501 14.545455
12.209122 3.0265794 1.1821858 1
12.78668 3.013226 1.1912255 1
12.841152 3.0573614 1.1114361 9.375
13.731656 3.0673225 1.102487 51.973682
16.716894 3.0818455 1.1160206 64.48214
-1.0434252 3.2063556 1.179585 26.5
0.94765478 3.2901611 1.0665634 3.6666667
1.1477118 3.225873 1.0976182 19
1.5306506 3.3583069 1.0495234 4
1.753554 3.3735485 1.0539488 5.6666665
2.3104048 3.320889 1.0860374 15.222222
4.1782365 3.2961667 1.1133553 13.947369
4.3558116 3.2965209 1.0880861 24.068966
4.406692 3.2691565 1.0595634 22
5.572196 3.2712274 1.1276635 10
5.6018505 3.3875551 1.1404619 18
10.700951 3.3142896 1.0595351 15.352942
16.738466 3.2275763 1.0612391 67.333336
16.975466 3.3083038 1.1307636 122.42105
17.041981 3.3494749 1.1342245 84.75
0.92932361 3.4588249 1.0588487 2
1.5627737 3.4058762 1.0498513 4
1.6839559 3.4350541 1.0649036 16.5
1.9035836 3.4375467 1.0913622 9.625
2.0883658 3.4351742 1.1178586 15.75
2.3236701 3.4216011 1.0752436 9.8000002
4.1583433 3.4912214 1.1381752 13.125
4.3314276 3.4918542 1.0668579 21.76
5.5214887 3.5096133 1.1338185 9.181818
8.7571507 3.4905872 1.0911639 9.3571424
10.593243 3.5769165 1.0781047 15.5
10.683795 3.494015 1.0668644 13.533334
17.083342 3.4968004 1.1079836 24.068966
4.1344786 3.6923995 1.125456 11.4375
4.3277245 3.6773453 1.0643239 15.913043
4.5240583 3.6801093 1.0898225 3
4.7197213 3.732939 1.0531822 7
4.9021845 3.73875 1.0809649 8.3000002
5.1117778 3.7199402 1.1278533 8.1111107
5.294435 3.7458305 1.1232421 14.333333
5.4901514 3.7118077 1.1189519 6.8333335
8.7484894 3.7016563 1.0401779 7.2727275
10.584452 3.7089095 1.0739832 14.4
17.097366 3.7024209 1.1051809 16.071428
5.4599891 3.826174 1.0615754 1
7.712924 3.959465 1.089561 5
7.8627944 3.9735487 1.0987111 4.6666665
8.1285019 3.9993548 1.114367 4
8.7167635 3.8940861 1.0300332 2.7777777
10.582598 3.8380313 1.0695764 13
13.771841 3.9246082 1.087997 19.052631
13.87291 3.8903997 1.0911709 25.071428
17.079437 3.9003022 1.0754727 14.789474
7.9151154 4.0781851 1.0291955 6.5
8.1320324 4.0830188 1.1368706 3.4444444
8.3033524 4.072927 1.1437399 12.6
8.5013285 4.0671506 1.0317403 8
8.6877174 4.0704603 1.0278749 5.5
13.746275 4.1024323 1.0790148 12.619047
15.13344 4.1958942 1.0726464 11
16.963079 4.1813884 1.0743992 14.909091
17.053873 4.0986052 1.0684892 12.548388
13.724663 4.3019657 1.0690635 12.578947
15.131033 4.3040104 1.0497745 8.6000004
16.943468 4.2967701 1.0709714 14.703704
17.020407 4.2134514 1.0737671 16.5
13.708766 4.504786 1.0656402 11.777778
15.11432 4.4851446 1.0280662 4
16.920946 4.49579 1.06577 14.92
13.691872 4.664607 1.1069739 6.5714288
14.472601 4.6472092 1.136348 6.181818
14.888677 4.6543136 1.0306636 4.5
15.087273 4.6499686 1.0617453 11.5
16.900915 4.6991005 1.0565593 14.578947
16.879841 4.8898983 1.0522298 14.375
16.849293 5.9779277 1.1273084 1
16.822256 6.1067243 1.1237452 1
16.813366 6.3259311 1.1164372 1
16.804167 6.4708104 1.1116006 1
16.592878 8.5846777 1.0349166 1
16.620094 8.5642815 1.0351868 1
16.598051 8.7646513 1.0273149 1
16.560198 8.9308548 1.0221562 1.25
16.600643 8.827014 1.0246515 1
9.1368599 12.16679 1.1505513 10.5
9.0886841 12.255396 1.1251844 1
-24.730503 24.220661 1.1359633 48
31.462004 29.09227 1.0970082 8
-25.852856 31.409327 1.1310234 18
-25.847874 31.638544 1.1353052 18
-25.731342 31.769583 1.1406403 18
-25.614357 31.900209 1.145969 18
-24.730835 41.73101 1.0065448 28
-24.004402 41.799892 1.0294888 27
-24.651955 41.958931 1.0120022 28
-23.800713 41.868813 1.0365622 27
-23.518265 41.835953 1.0446475 27
2.4746685 -7.8066077 1.227298 11.25
2.19314 -7.6652145 1.2160485 53
2.2859898 -7.7285867 1.2706374 38.180954
2.5024385 -7.7601409 1.2507123 20.710279
2.6999452 -7.7400193 1.2518736 17.84874
2.9023294 -7.7196894 1.2507762 16.853449
3.1005511 -7.7010388 1.2352166 21.317308
3.2940049 -7.6476531 1.2297266 24.655172
3.4825549 -7.6145639 1.2403425 15.615385
3.6549678 -7.6191969 1.2428837 6.6999998
3.8607903 -7.6250939 1.2307506 1
2.1844203 -7.4862814 1.2188003 39.076923
2.2225275 -7.5046287 1.3185902 62.649124
3.3260446 -7.5844083 1.2302291 17.461538
3.5191612 -7.5884886 1.2183546 31.311111
3.7012117 -7.5771389 1.2253246 26.253731
3.8999536 -7.562274 1.22761 23.266666
4.0968943 -7.5441918 1.2297764 24.313253
4.2989383 -7.521924 1.227773 26.410959
4.5009594 -7.505559 1.2343582 26.907894
4.6986547 -7.480299 1.2366152 29.867647
4.8326459 -7.4572153 1.2307312 50.9375
-1.069026 -7.2327666 1.2231958 76.058823
-0.91742164 -7.2202458 1.2267196 70.85714
2.1793818 -7.2819724 1.2754053 57.729729
2.2182651 -7.3202281 1.3362764 72.571426
4.7378263 -7.2951136 1.2635113 58.375
4.8267922 -7.2955585 1.2368132 40.041668
-1.1242483 -7.0858378 1.2885033 84.723076
-0.89270371 -7.1311498 1.3180822 64.92308
-0.71010619 -7.0245056 1.2366478 92
-0.51936102 -7.043211 1.20259 60
-0.29768181 -7.0154572 1.2065489 66
-0.13856697 -7.0007596 1.209385 70
0.31545144 -7.1000547 1.2373145 105.28735
0.50271702 -7.091701 1.2465879 104.20879
0.70287251 -7.0741687 1.2470499 104.16483
0.89976788 -7.057178 1.2490712 105.88298
1.0956061 -7.037055 1.2416148 98.945206
1.2967538 -7.0207858 1.2348921 101.58108
1.4891376 -7.0100188 1.2458911 105.91489
1.6661991 -7.0085058 1.2359586 93.444443
2.1696596 -7.0933552 1.2884328 64.950821
2.2086248 -7.1284003 1.3293645 68.444443
4.7833085 -7.1035037 1.2666993 43.333332
4.8109612 -7.1001019 1.2340028 42.25
8.5801277 -7.0578098 1.2960849 51.777779
8.7000074 -7.1400218 1.2899115 34.152542
8.8985052 -7.1553774 1.2722481 30.210526
9.0988197 -7.1338177 1.2595527 27.63492
9.2976294 -7.1136255 1.2618033 28.34375
9.5022259 -7.0859437 1.2538919 30.915493
9.664175 -7.0379157 1.2493049 29.372093
-1.1448493 -6.9019842 1.2917625 94.105881
-0.66453648 -6.9846334 1.2426655 91.571426
-0.49834725 -6.978004 1.2373194 94.428574
-0.29733366 -6.960783 1.2406482 95.369232
-0.099119708 -6.9393101 1.234897 97.179489
0.098803632 -6.922194 1.237045 100.22785
0.23335604 -6.9402218 1.2240582 92.242424
1.1057557 -6.9768267 1.2223774 56
1.3332988 -6.9930115 1.2263327 99.416664
1.5181038 -6.9800334 1.2366406 98.36364
1.7078856 -6.9720201 1.2452683 102.68889
1.9074382 -6.9371805 1.2659845 74.037041
2.0863016 -6.9507823 1.2568895 64.897728
4.7828312 -6.8933992 1.2419358 41.565216
4.8073592 -6.9416161 1.2144949 28
8.5720701 -6.8925085 1.2688628 40.857143
9.7426872 -6.9853172 1.2593709 33.650002
9.8967037 -6.9752088 1.256588 30.934067
10.099188 -6.9554663 1.2549934 29.325842
10.303455 -6.9363327 1.2601944 28.517241
10.500428 -6.9143977 1.2609675 28.03409
10.699247 -6.8942647 1.2641962 29.35955
10.870298 -6.8702364 1.2768575 41.581818
11.11093 -6.843092 1.2744302 37.794872
11.21862 -6.8312035 1.23959 59.333332
-1.1622335 -6.7011814 1.2893656 96.388237
1.1074433 -6.6497316 1.3293799 6.5454545
1.2708049 -6.6501226 1.3472248 7.5
1.4328847 -6.7173176 1.3759353 74
1.7165022 -6.7909799 1.375149 56
1.9266753 -6.7067943 1.3374729 34.473682
4.7730942 -6.7035346 1.2407761 49.857143
4.8960767 -6.6614594 1.2484912 77.165138
5.098105 -6.6441183 1.2499157 75.869568
5.2966399 -6.6300659 1.252429 75.705879
5.4883456 -6.6172814 1.2513226 75.533333
5.6283073 -6.6058378 1.2459075 92.75
8.5500956 -6.6883712 1.2627647 41.119999
10.954404 -6.7456594 1.2744671 96.578949
11.13222 -6.6966953 1.2561083 48.523811
11.216795 -6.7004108 1.2859845 60.795456
-1.2078437 -6.4583926 1.3266728 108.77778
-1.1729331 -6.5078373 1.274784 95.671234
1.2779233 -6.5859232 1.356782 2.5
1.4982374 -6.5825386 1.3540559 3.5
1.6891806 -6.5878515 1.3367814 2.5
1.9155223 -6.5588217 1.3213519 15.8
5.3569884 -6.5878158 1.2121347 71.666664
5.5348668 -6.5632739 1.2490723 90
5.6631155 -6.5039811 1.247305 96.196724
5.9051738 -6.5328636 1.2282441 99.464287
6.107163 -6.5163493 1.2274604 98.304344
6.3009043 -6.5210242 1.2175255 101.66666
6.5013084 -6.5067887 1.2172649 101.63158
6.6976104 -6.4846926 1.2580225 98.3125
6.9052477 -6.4792566 1.2563064 96.75
7.1045814 -6.4648051 1.2564603 95.769234
7.3048525 -6.4451818 1.2572292 93.714287
7.5002151 -6.4260669 1.2616431 91.5625
7.690845 -6.4166012 1.2626814 92.40741
7.8649869 -6.4240351 1.2586142 81.071426
8.1084766 -6.4800091 1.293484 51.5
8.2141676 -6.4711304 1.2941694 52
8.5269728 -6.496254 1.2532196 42.346153
11.1736 -6.4952888 1.2619005 55.57143
11.20678 -6.5167947 1.3205235 64.470589
15.327985 -6.5237484 1.3611071 9.5
15.509788 -6.5212717 1.3314406 8.3846149
15.700828 -6.50249 1.3210958 7.5238094
15.895142 -6.4774656 1.3062308 14.028571
16.040167 -6.4278584 1.3011317 29.68421
-1.2161367 -6.2891283 1.2844104 97.294121
-1.1749946 -6.3112741 1.2806492 96.846153
5.7239599 -6.3852787 1.2613858 98.213112
5.9016128 -6.3694758 1.2599921 96.604935
6.10004 -6.3493962 1.2663004 94.770119
6.2989025 -6.3337369 1.2667379 93.659088
6.4991212 -6.3150711 1.2683765 90.699997
6.6183181 -6.3321757 1.2691821 99.413795
7.7211957 -6.3931794 1.2558709 88.25
7.905961 -6.3837552 1.2600775 93.757576
8.0989943 -6.3660598 1.2618358 92.078949
8.298955 -6.3478513 1.2677842 81.401787
8.4641418 -6.332056 1.2666466 60.776119
11.172391 -6.3007669 1.2832592 61.854546
11.201991 -6.3868952 1.2182595 55
16.132689 -6.386797 1.3017223 17.217392
16.301586 -6.3697925 1.3114381 15.875
16.502808 -6.3552594 1.3176126 16.049999
16.701319 -6.3348069 1.3007123 13.682927
16.904181 -6.309895 1.2961652 12.621622
17.097494 -6.288856 1.2997377 11.2
17.285849 -6.2804565 1.2933652 11.5
17.517416 -6.2520037 1.3059872 20.857143
17.60918 -6.2340117 1.2854304 74.25
-1.2283181 -6.0979843 1.2777859 95
-1.1841717 -6.104054 1.295895 100.04166
11.160755 -6.0949111 1.2857503 66.4375
11.300155 -6.0396576 1.2774473 70.134834
11.500134 -6.0232568 1.2806492 74.585365
11.691577 -6.0136747 1.2676748 66.666664
11.871788 -6.0068712 1.2963806 59.105263
17.579807 -6.0931358 1.2590425 58.809525
17.614765 -6.1341023 1.2826757 64.400002
-1.2412597 -5.8933849 1.283349 96.625
-1.1913952 -5.9360471 1.288978 100
11.589653 -5.9927468 1.2692567 49.333332
11.719913 -5.9866576 1.2936292 86.448273
11.915301 -5.9722614 1.2782136 91.428574
12.075424 -5.9493585 1.2799062 100.93443
12.301416 -5.9427299 1.241532 107.92593
12.501862 -5.9292984 1.2467058 102.73529
12.694265 -5.9187264 1.2482167 97.297295
12.893672 -5.9017291 1.2501163 101.58334
13.105518 -5.8810267 1.295524 108.57143
13.300575 -5.8644261 1.297377 105.77778
13.499344 -5.8474979 1.2933037 100.50877
13.701377 -5.8299537 1.2964704 101.67273
13.898198 -5.8142748 1.2961081 105.08163
14.05288 -5.8058405 1.3107643 113.5
14.222367 -5.8027167 1.3841364 117
14.403816 -5.8561053 1.3855417 10
17.565811 -5.9001284 1.2767628 56.347828
17.625862 -5.9371371 1.3175364 46
-1.2561439 -5.6966534 1.2868416 101.11236
11.989287 -5.774075 1.3511686 127.33334
12.099464 -5.7640686 1.3425676 115.63636
12.308064 -5.7471161 1.3472788 117.43333
12.502865 -5.7300997 1.3465858 107.48276
12.701247 -5.7108326 1.3486807 103.77419
12.886786 -5.6943603 1.3479694 97.040001
13.932644 -5.7981319 1.3326571 120
14.116839 -5.7894478 1.2944913 100.52631
14.308191 -5.7736111 1.299033 99.040001
14.489842 -5.743885 1.2935406 91.441177
14.715523 -5.7362971 1.3108275 68.547623
14.847957 -5.7186956 1.3079065 51.153847
17.559341 -5.7090745 1.2905285 62.439999
17.60891 -5.7483811 1.3214122 63.5
-1.2718804 -5.5007129 1.2841206 96.199997
-1.1015244 -5.404604 1.2699163 100
14.31578 -5.460856 1.3178343 110.54166
14.456049 -5.5380464 1.3131663 96.199997
14.7885 -5.4455838 1.3191403 54
14.820612 -5.4411545 1.2608607 86.14286
17.55014 -5.5091286 1.2957011 64.916664
17.679232 -5.433125 1.2762408 12.333333
17.889288 -5.4034672 1.269587 105.66666
-1.2607385 -5.2970648 1.2875173 58.711864
-1.138608 -5.2836332 1.2778453 63.549999
14.318677 -5.3296208 1.3285586 107.61765
14.470727 -5.2848039 1.3347044 70.333336
14.769111 -5.3417954 1.2969351 78.64286
14.808902 -5.3552284 1.2948356 59
17.595949 -5.3733416 1.3276747 11
17.713572 -5.3653159 1.3244407 12
17.889633 -5.3036098 1.2961534 125.57143
-1.2959456 -5.1110873 1.2722063 69.284485
-1.1626942 -5.1587715 1.2572677 21.1
14.348508 -5.1720719 1.3786541 60.666668
14.713591 -5.1864614 1.3943982 52
15.917706 -5.068924 1.3179713 91.919998
16.085285 -5.0246549 1.3291203 89.553192
16.203945 -5.0010853 1.3961687 105
17.884972 -5.1170435 1.3903974 92.5
-1.3342079 -4.899662 1.2743359 97.353539
16.155231 -4.9924641 1.2929915 73
16.302687 -4.9622083 1.3205565 80.482758
16.502693 -4.9092207 1.3084489 81.3871
16.698 -4.8552051 1.3199223 79.622948
16.872862 -4.8172932 1.3157153 84.571426
17.002621 -4.8048511 1.3157322 43
-1.3524443 -4.7019591 1.2734108 100.5
16.783447 -4.7898059 1.3578384 27
16.940672 -4.7806964 1.3148912 72.384613
17.097218 -4.7484498 1.3134202 74.355934
17.294283 -4.6971822 1.3147457 74.94915
17.491833 -4.6480689 1.3107013 77.942307
17.666327 -4.6237707 1.3250095 86.047623
17.810505 -4.6212554 1.3331286 94.14286
-1.370159 -4.4988365 1.2739476 101.57609
17.491758 -4.5888023 1.3391038 25
17.740961 -4.5112681 1.309353 105.5862
17.815556 -4.5044785 1.2955362 110.89362
-1.4099154 -4.2750683 1.2958258 99.388885
-1.3791715 -4.3196983 1.2610074 96.709679
17.778984 -4.2924094 1.3069793 110.92105
17.806396 -4.3315659 1.3117845 119.66666
-1.4207777 -4.0922127 1.2771177 98.230766
-1.3862878 -4.1127567 1.2709043 99.580643
17.765629 -4.0984778 1.3093675 113.18681
17.801956 -4.1679225 1.2749643 114
-1.4308839 -3.8979588 1.2723104 92.65432
-1.3923016 -3.9283969 1.2880121 100
17.747561 -3.9047098 1.309866 109.38043
-1.4476444 -3.6981835 1.2786222 95.720932
17.727491 -3.7015088 1.3149022 102.27184
-1.4687386 -3.4981065 1.2760252 85.516487
17.70956 -3.5000739 1.3105489 99.329544
-1.4884958 -3.3016052 1.2815001 97.574471
17.688232 -3.3007665 1.3098611 102.59341
-1.5086638 -3.1022387 1.2762109 90.817307
17.667034 -3.1019933 1.3028566 102.62887
-1.5281163 -2.898396 1.2794138 95.021049
17.590782 -2.8078444 1.3549979 100
17.648531 -2.9042826 1.2968029 104.32291
-1.649262 -2.638047 1.2248315 1
-1.5478166 -2.7013478 1.2773751 89.2043
17.581579 -2.6903417 1.355029 100
17.630312 -2.6994617 1.2934686 113.27907
-1.5653703 -2.5010262 1.283216 90.68293
17.585285 -2.4821119 1.2945497 110.6
17.615396 -2.5047464 1.3008635 117.33803
-1.6074917 -2.2816885 1.3082992 64.1875
-1.5787662 -2.3071728 1.2701583 95.718307
17.583965 -2.2829363 1.2936522 116.34722
17.608208 -2.3379078 1.2887568 114.81818
-1.6155649 -2.0886292 1.2801173 95.561401
-1.5830783 -2.1219294 1.2704024 101.19355
17.573011 -2.0977054 1.2961649 117.16666
17.602448 -2.1567438 1.3288068 128.33333
-1.6290452 -1.8943728 1.2792848 102.44944
-1.585519 -1.9253689 1.2948257 99.909088
16.765345 -1.8020141 1.2103024 17
17.55176 -1.9025322 1.30145 114.92174
-1.6437486 -1.6979134 1.2788275 101.03226
-1.5963054 -1.7219403 1.3019582 100
16.685215 -1.7595682 1.214853 83.571426
17.534323 -1.6993375 1.2935234 114.37255
-1.661956 -1.5009931 1.28028 99.094734
17.516485 -1.5026368 1.2990307 113.18182
-1.6811697 -1.2988672 1.2824881 99.5
17.495478 -1.3020666 1.298074 114.51428
-1.7001466 -1.0993193 1.2796032 102.71277
17.476196 -1.1014944 1.2983925 114.57426
-1.7193251 -0.90204221 1.2821306 101.48
17.459602 -0.90290964 1.3022649 108.94949
-1.7370473 -0.69601196 1.2795678 100.49
17.440271 -0.7028423 1.3056841 110.86957
-1.7568836 -0.50051618 1.2773659 102.56123
17.393633 -0.48055047 1.33953 103.8
17.425476 -0.50210643 1.3058915 114.25
-1.8051336 -0.25908366 1.3206279 106.2
-1.7737809 -0.30524981 1.277882 100.24468
17.385666 -0.27763614 1.3110367 111.76316
17.412647 -0.31556773 1.3109975 107.2
-1.8098301 -0.076994658 1.301782 95.684212
-1.7840111 -0.1125788 1.2641573 103.33929
17.375479 -0.089430332 1.3026851 114.98766
17.411819 -0.15256482 1.299509 101.54546
-1.8199629 0.1114274 1.2827131 96.256409
-1.7860276 0.077244103 1.2745006 102.42105
17.360394 0.10169132 1.2868859 112.71819
17.424992 0.081451416 1.2788813 1
-1.8345318 0.30545813 1.2792958 97.938271
-1.7916702 0.28519019 1.2806706 92.833336
17.342531 0.29856706 1.2927134 113.14679
-1.8411093 0.4798108 1.2854307 89.910255
-1.7003531 0.54856694 1.3198591 44.383335
-1.5169303 0.56723398 1.3092576 48.240742
17.325304 0.49949458 1.2952613 116.85107
-1.4862953 0.69938219 1.2815237 57.434784
17.304163 0.70279557 1.2999882 120.01064
-1.5119766 0.89891201 1.2822187 59.604397
17.286343 0.90120465 1.2995344 119.92308
-1.537969 1.0972847 1.2792082 59.348839
4.1089206 1.103807 1.2605026 57.375
4.3053784 1.1153065 1.2704663 64.378639
4.5013366 1.135968 1.2718071 65.213593
4.6982741 1.1621356 1.2641957 63.130436
4.8535528 1.1777846 1.2588564 58.918365
17.269167 1.1019065 1.297146 120.92553
-1.6006999 1.2994771 1.3914332 72
-1.519927 1.3011999 1.2964296 75.102562
-1.2996383 1.3557101 1.3224994 81.21212
-1.1081564 1.3699906 1.3298175 86.449997
-0.91315359 1.3816454 1.3355268 80.71154
-0.76251233 1.3848879 1.3329334 88.307693
3.9979987 1.3568558 1.232813 31.5
4.0182519 1.2933443 1.2298663 41.5
4.7541018 1.2098508 1.3896842 18.5
4.8790727 1.2980179 1.3362602 60.35849
17.248823 1.3006281 1.2985028 125.65882
-1.3184528 1.4013667 1.2354479 30
-1.0949774 1.4095663 1.2949144 90
-0.88610917 1.4114115 1.3131801 95.099998
-0.74268383 1.4924644 1.2980957 86.494255
1.1223477 1.5782844 1.3578434 79.730766
1.2839425 1.581346 1.3655357 89.400002
1.4676696 1.5887146 1.3654853 86.85714
1.6543963 1.5923769 1.3627608 81.5
3.9851923 1.5146103 1.2337602 43.608696
4.0057216 1.4485321 1.2254945 42
4.8589959 1.4911871 1.3330238 63.333332
17.193897 1.5600693 1.2401673 126
17.230097 1.4977992 1.2955853 123.43023
-0.74587214 1.6829998 1.2749569 71.910713
-0.0049806237 1.774698 1.3818269 1
0.14231536 1.7118459 1.3297271 50.016392
0.27118492 1.7561742 1.3542836 28.727272
0.48843661 1.7884628 1.3907896 4.7142859
0.99105716 1.7465172 1.3953383 149
1.1432266 1.6122113 1.3039918 59.916668
1.30373 1.6150122 1.3332329 84.029411
1.499512 1.6300725 1.3387676 84.53846
1.7002262 1.6445018 1.3456411 83.895836
1.8986601 1.6575034 1.3564048 88.380951
2.1096656 1.680268 1.3465856 91.553574
2.3007026 1.7016476 1.3448224 94.421875
2.4395747 1.7276548 1.336107 85.535713
3.9701719 1.693917 1.2313224 43.962963
4.7895551 1.728201 1.2659208 71.666664
4.8361897 1.6998453 1.3207668 63.487804
10.392172 1.7481954 1.2823982 66.615387
10.48063 1.724233 1.3098545 60.895348
10.70411 1.7381694 1.3173727 67.612503
10.89783 1.7582952 1.3142359 76.905403
11.096475 1.7762837 1.3140963 64.973335
11.232864 1.7843382 1.3075366 58.8125
17.189564 1.7141858 1.2639443 120.63158
17.217453 1.697257 1.3033484 122.61429
